-70.457836 42.328489 -67.5
-70.456638 42.325594 -63.9
-70.451176 42.310881 -90.5
-70.44631 42.292792 -86.0
-70.444929 42.286764 -84.1
-70.444498 42.283712 -83.5
-70.44211 42.259468 -74.7
-70.442372 42.241287 -73.8
-70.446917 42.210476 -64.2
-70.4541 42.188655 -62.6
-70.455314 42.185499 -62.3
-70.290733 42.323614 -30.0
-70.289924 42.320539 -30.6
-70.289115 42.317467 -31.1
-70.287054 42.308169 -32.3
-70.285801 42.301944 -30.2
-70.283845 42.289444 -30.2
-70.28252 42.276903 -28.3
-70.281723 42.261111 -27.0
-70.281644 42.24844 -27.0
-70.282044 42.239098 -26.4
-70.282825 42.229587 -25.8
-70.283797 42.21999 -25.1
-70.285867 42.207048 -24.4
-70.287089 42.200595 -24.4
-70.287794 42.197376 -24.1
-70.290761 42.184529 -23.8
-70.301243 42.152691 -18.9
-70.302571 42.149549 -21.8
-70.552166 42.166483 -35.7
-70.539293 42.187169 -46.0
-70.533366 42.19931 -45.7
-70.527855 42.214676 -46.3
-70.525655 42.224265 -53.0
-70.201625 42.285956 -42.5
-70.20058 42.272922 -40.7
-70.200446 42.269628 -40.4
-70.200041 42.259747 -38.9
-70.200063 42.256447 -38.1
-70.269387 42.286717 -32.9
-70.267953 42.270506 -31.1
-70.267658 42.264006 -29.7
-70.267731 42.244393 -27.0
-70.270306 42.214762 -23.2
-70.270842 42.211493 -23.2
-70.271378 42.208226 -23.2
-70.273177 42.198476 -22.6
-70.273902 42.195262 -22.6
-70.323872 42.009384 -48.3
-70.328344 42.009356 -48.3
-70.346242 42.009231 -48.6
-70.381981 42.008357 -48.8
-70.386395 42.008301 -48.5
-70.39972 42.008162 -47.9
-70.404174 42.008121 -47.5
-70.40863 42.008079 -47.2
-70.417541 42.008004 -46.9
-70.43973 42.007837 -45.7
-70.448452 42.007771 -45.3
-70.451541 42.011857 -42.8
-70.448502 42.014221 -44.0
-70.451232 42.006135 -44.8
-70.477772 42.005598 -37.5
-70.482047 42.005962 -38.3
-70.534387 42.007479 -34.9
-70.563234 42.081086 -23.5
-70.554506 42.081275 -29.6
-70.550139 42.081372 -29.3
-70.545742 42.081522 -33.2
-70.532549 42.081978 -39.8
-70.269807 42.194562 -22.7
-70.268424 42.201309 -22.7
-70.267841 42.204684 -23.6
-70.267256 42.208059 -23.6
-70.265303 42.22164 -24.1
-70.264519 42.228468 -25.6
-70.511612 42.049853 -43.1
-70.544471 42.016632 -28.5
-70.478197 42.017762 -38.7
-70.448717 42.050809 -49.2
-70.414639 42.083797 -56.5
-70.378299 42.046739 -52.9
-70.312706 42.048447 -54.4
-70.481696 42.21829 -61.7
-70.510138 42.24987 -63.9
-70.546362 42.284009 -66.0
-70.515073 42.316753 -82.1
-70.451135 42.246634 -73.8
-70.347172 42.150163 -55.9
-70.229341 42.213354 -29.3
-70.229788 42.210048 -29.1
-70.235016 42.183509 -27.3
-70.237459 42.173559 -27.3
-70.239479 42.166951 -31.1
-70.241501 42.160343 -51.4
-70.244926 42.15043 -59.3
-70.24734 42.143819 -53.5
-70.252842 42.130616 -54.9
-70.255709 42.124016 -55.8
-70.25727 42.120788 -59.1
-70.261962 42.111099 -61.6
-70.268956 42.098271 -59.7
-70.274492 42.088813 -59.9
-70.276409 42.085755 -60.2
-70.304306 42.189193 -25.3
-70.302728 42.195915 -26.5
-70.301939 42.199276 -27.1
-70.301147 42.20264 -27.1
-70.300581 42.206007 -27.4
-70.298875 42.216115 -29.0
-70.298306 42.219484 -29.6
-70.297272 42.229734 -29.0
-70.296928 42.233151 -29.6
-70.296582 42.23657 -30.9
-70.296087 42.257095 -30.6
-70.29807 42.287531 -27.6
-70.558558 42.009615 -28.7
-70.554802 42.011435 -25.0
-70.547421 42.015176 -28.7
-70.543796 42.017096 -28.3
-70.536546 42.020936 -29.6
-70.529507 42.024909 -33.8
-70.515845 42.033111 -41.0
-70.502693 42.041953 -42.2
-70.477882 42.060856 -46.5
-70.474934 42.063345 -47.1
-70.469034 42.068328 -49.2
-70.466312 42.070906 -49.8
-70.463587 42.073486 -50.4
-70.445334 42.0919 -53.9
-70.440451 42.097422 -54.9
-70.416395 42.129708 -61.0
-70.414468 42.132783 -61.3
-70.39932 42.161141 -61.9
-70.396398 42.16761 -62.2
-70.391434 42.180708 -62.5
-70.387243 42.19387 -62.3
-70.541017 42.075459 -38.1
-70.513155 42.097545 -45.7
-70.510405 42.100214 -43.4
-70.502146 42.108231 -43.1
-70.499391 42.110906 -43.1
-70.496899 42.113689 -45.0
-70.486919 42.124824 -47.7
-70.48251 42.130583 -50.7
-70.473927 42.142244 -56.1
-70.469991 42.148288 -57.3
-70.468021 42.15131 -57.9
-70.462641 42.160538 -59.4
-70.452021 42.182577 -62.9
-70.448464 42.192196 -63.2
-70.441961 42.215007 -65.4
-70.550639 42.089325 -29.0
-70.550489 42.092611 -31.2
-70.550336 42.095897 -31.9
-70.55344 42.120616 -27.4
-70.547573 42.125913 -30.2
-70.546107 42.127238 -25.0
-70.531484 42.142858 -30.2
-70.517986 42.160858 -45.1
-70.516061 42.163924 -48.5
-70.514136 42.166994 -49.7
-70.50712 42.179394 -52.4
-70.498804 42.198116 -57.8
-70.496421 42.204335 -58.7
-70.493832 42.213845 -59.9
-70.492968 42.217015 -59.9
-70.491004 42.226759 -60.7
-70.256172 42.235084 -26.7
-70.256428 42.231843 -26.1
-70.257786 42.218962 -24.8
-70.25821 42.215759 -23.9
-70.258632 42.212559 -24.1
-70.259655 42.20624 -24.4
-70.260852 42.200007 -23.5
-70.265771 42.178304 -22.9
-70.266702 42.175265 -24.1
-70.267635 42.172226 -24.1
-70.274777 42.151099 -52.1
-70.275866 42.148094 -49.7
-70.277107 42.145119 -52.1
-70.284885 42.127402 -60.0
-70.290676 42.115769 -61.3
-70.296979 42.104121 -60.8
-70.304045 42.09258 -60.5
-70.305815 42.089691 -60.5
-70.311542 42.081242 -58.1
-70.325792 42.061659 -55.5
-70.330329 42.056167 -54.6
-70.349651 42.034153 -51.5
-70.360451 42.023234 -50.3
-70.366045 42.017856 -49.5
-70.37184 42.012556 -49.2
-70.335684 42.017225 -49.5
-70.330354 42.022556 -50.1
-70.325292 42.028095 -51.1
-70.304011 42.183623 -24.2
-70.299644 42.183679 -24.5
-70.295278 42.183737 -23.6
-70.286543 42.183854 -23.3
-70.277793 42.183912 -23.0
-70.429309 42.131266 -60.7
-70.43137 42.128308 -60.4
-70.442057 42.113677 -57.3
-70.451304 42.10227 -54.6
-70.456293 42.096731 -53.9
-70.46667 42.085886 -51.5
-70.469365 42.083231 -50.9
-70.472059 42.080578 -50.3
-70.477643 42.075406 -48.8
-70.483426 42.070372 -47.9
-70.492268 42.062972 -45.0
-70.504507 42.053495 -43.7
-70.507469 42.118967 -37.0
-70.525767 42.101056 -37.0
-70.528628 42.098695 -38.4
-70.552361 42.080414 -29.6
-70.557853 42.076647 -27.7
-70.561892 42.07405 -29.3
-70.559384 42.07995 -30.9
-70.542842 42.091853 -30.2
-70.521486 42.109864 -35.7
-70.518809 42.11262 -33.2
-70.498344 42.13528 -44.8
-70.489596 42.147152 -53.6
-70.487494 42.150141 -54.3
-70.483549 42.156252 -55.5
-70.470195 42.181602 -59.9
-70.468695 42.184819 -60.5
-70.467497 42.188094 -60.8
-70.465103 42.194649 -61.4
-70.462706 42.201208 -62.0
-70.461814 42.204585 -62.3
-70.460922 42.207965 -62.9
-70.460028 42.211345 -63.9
-70.455609 42.235526 -72.5
-70.455215 42.242609 -73.5
-70.455285 42.267373 -78.0
-70.456968 42.281165 -80.6
-70.549211 42.185585 -43.7
-70.543155 42.197696 -42.2
-70.541716 42.200769 -42.5
-70.539219 42.207094 -43.1
-70.538163 42.210344 -42.5
-70.534994 42.220098 -43.1
-70.297856 42.198268 -25.8
-70.302703 42.179412 -23.5
-70.303617 42.176318 -23.5
-70.306556 42.167066 -20.9
-70.307661 42.164005 -20.0
-70.303899 42.146408 -49.4
-70.330266 42.096635 -59.6
-70.332188 42.09358 -59.6
-70.336343 42.087661 -59.0
-70.347052 42.073086 -57.2
-70.328221 42.269261 -54.9
-70.328874 42.275919 -57.3
-70.329199 42.279247 -59.3
-70.330391 42.289222 -61.7
-70.331469 42.295853 -58.4
-70.333333 42.305753 -53.8
-70.334121 42.309025 -52.9
-70.338455 42.325311 -85.5
-70.339439 42.328547 -84.6
-70.340422 42.331783 -84.6
-70.341406 42.335019 -84.9
-70.351524 42.067392 -56.1
-70.36348 42.053417 -54.3
-70.392493 42.024175 -50.0
-70.415849 42.004715 -46.2
-70.407046 42.016339 -48.3
-70.389941 42.031661 -51.1
-70.384502 42.036934 -51.7
-70.381782 42.03957 -52.0
-70.376502 42.044934 -52.9
-70.371374 42.050384 -53.5
-70.366246 42.055834 -54.4
-70.356685 42.067172 -56.2
-70.339288 42.090299 -59.0
-70.327702 42.108294 -61.7
-70.32586 42.111335 -61.4
-70.324018 42.114377 -61.4
-70.322349 42.11751 -61.7
-70.301082 42.165285 -20.7
-70.39247 42.301442 -87.6
-70.398132 42.321781 -100.4
-70.403018 42.334953 -91.3
-70.405585 42.341489 -89.5
-70.406696 42.333353 -91.3
-70.450246 42.291581 -86.0
-70.450693 42.294372 -86.0
-70.452285 42.300206 -87.8
-70.453079 42.303122 -87.8
-70.45798 42.317744 -86.0
-70.459083 42.320675 -78.6
-70.263761 42.238693 -26.2
-70.263211 42.248907 -27.4
-70.263378 42.262642 -29.9
-70.264192 42.276311 -32.0
-70.270507 42.33485 -33.5
-70.267137 42.321964 -33.5
-70.26644 42.318764 -33.5
-70.263162 42.302758 -31.5
-70.262673 42.299564 -32.5
-70.262184 42.296369 -32.5
-70.259664 42.273847 -31.5
-70.2594 42.267406 -31.2
-70.259 42.257742 -29.7
-70.259058 42.25455 -29.1
-70.519224 42.082589 -41.3
-70.51476 42.08282 -41.6
-70.505833 42.083281 -41.9
-70.483504 42.084636 -44.7
-70.474537 42.084939 -48.8
-70.461084 42.085397 -49.7
-70.443134 42.085984 -53.3
-70.438644 42.086131 -53.6
-70.429594 42.086592 -55.2
-70.420542 42.087056 -55.8
-70.416014 42.087289 -56.4
-70.411486 42.087522 -56.7
-70.389106 42.088514 -57.8
-70.384683 42.088692 -58.1
-70.348838 42.090525 -58.1
-70.293984 42.092366 -61.0
-70.284709 42.092463 -60.0
-70.306817 42.047556 -54.3
-70.238413 42.183715 -26.4
-70.225576 42.183623 -29.0
-70.278326 42.082696 -60.2
-70.282162 42.076578 -59.3
-70.284234 42.073592 -59.3
-70.313477 42.303503 -37.3
-70.310593 42.285275 -38.4
-70.310234 42.282233 -38.1
-70.309009 42.266789 -37.8
-70.308695 42.257387 -38.7
-70.308751 42.251065 -39.3
-70.308779 42.247904 -38.1
-70.309454 42.235184 -37.5
-70.309884 42.228812 -35.8
-70.313292 42.206479 -33.5
-70.317628 42.187495 -27.4
-70.318458 42.184343 -26.8
-70.321319 42.174984 -24.4
-70.323347 42.168777 -22.9
-70.326756 42.159494 -21.6
-70.327953 42.156405 -21.3
-70.329153 42.153313 -21.8
-70.331903 42.14716 -51.5
-70.327228 42.147794 -24.2
-70.325825 42.150991 -21.2
-70.314253 42.183979 -25.8
-70.307714 42.214051 -33.5
-70.306594 42.220818 -32.9
-70.545127 42.222645 -36.6
-70.504502 42.095714 -43.1
-70.501708 42.098253 -43.7
-70.496344 42.103453 -45.0
-70.488641 42.111442 -46.5
-70.483771 42.116881 -48.6
-70.481471 42.119658 -48.9
-70.476869 42.125213 -52.0
-70.472524 42.130841 -53.5
-70.466399 42.139396 -56.5
-70.449124 42.169113 -61.1
-70.445027 42.178371 -62.0
-70.43916 42.194074 -63.2
-70.437116 42.200432 -63.2
-70.438439 42.23937 -72.8
-70.438259 42.242701 -73.5
-70.437834 42.25599 -74.2
-70.437956 42.25929 -74.5
-70.43874 42.27237 -84.1
-70.43916 42.275551 -81.7
-70.439579 42.278729 -83.5
-70.439998 42.281909 -84.1
-70.441068 42.288172 -86.0
-70.441718 42.291256 -87.9
-70.442368 42.294342 -87.9
-70.443668 42.300511 -89.8
-70.445551 42.306625 -91.6
-70.446493 42.309683 -93.4
-70.448379 42.3158 -66.1
-70.449587 42.318861 -64.3
-70.53389 42.172663 -46.8
-70.537598 42.166596 -42.2
-70.548593 42.152108 -27.6
-70.55371 42.146655 -26.4
-70.304699 42.125474 -62.6
-70.309421 42.116471 -61.4
-70.310996 42.113469 -62.3
-70.321485 42.095896 -60.0
-70.329313 42.084428 -58.8
-70.335524 42.075945 -57.9
-70.346451 42.062028 -55.6
-70.348723 42.059281 -55.3
-70.358126 42.048478 -53.5
-70.365406 42.040514 -52.6
-70.375781 42.030145 -51.2
-70.386723 42.019995 -49.7
-70.39229 42.014956 -49.1
-70.406917 42.002712 -46.6
-70.404127 42.009398 -47.9
-70.395385 42.016934 -49.4
-70.392513 42.01947 -49.5
-70.384035 42.02717 -50.4
-70.381299 42.029795 -50.7
-70.362963 42.048425 -53.5
-70.358027 42.053928 -54.4
-70.350816 42.062364 -55.8
-70.337352 42.079456 -58.2
-70.335349 42.082342 -58.5
-70.331341 42.088119 -59.1
-70.32733 42.093896 -60.0
-70.325496 42.096858 -60.7
-70.319988 42.105749 -59.7
-70.314899 42.114655 -62.0
-70.311643 42.120599 -62.3
-70.456361 42.018526 -43.6
-70.466194 42.011604 -38.4
-70.472753 42.006987 -36.7
-70.479853 42.006571 -38.6
-70.460967 42.019551 -43.4
-70.457908 42.021821 -44.0
-70.448736 42.028634 -47.1
-70.44295 42.033445 -48.3
-70.440056 42.035853 -48.6
-70.437161 42.038259 -49.2
-70.428789 42.045647 -50.4
-70.42605 42.048139 -51.1
-70.417983 42.055731 -52.9
-70.405217 42.068878 -55.2
-70.204506 42.183357 -35.4
-70.428337 42.288508 -86.9
-70.48916 42.239998 -62.8
-70.48856 42.250134 -57.6
-70.490944 42.280512 -76.7
-70.491494 42.283851 -78.5
-70.493813 42.293694 -80.3
-70.502724 42.319603 -85.3
-70.504342 42.322739 -86.9
-70.51082 42.335289 -93.9
-70.512759 42.33005 -89.8
-70.51115 42.327053 -87.6
-70.509542 42.324056 -86.6
-70.506659 42.317953 -83.8
-70.498741 42.296019 -79.9
-70.495094 42.280082 -76.4
-70.434307 42.315503 -60.7
-70.438065 42.313786 -59.4
-70.441823 42.312069 -67.7
-70.429087 42.314383 -69.3
-70.387464 42.319353 -70.9
-70.207618 42.269103 -38.6
-70.207282 42.262364 -37.3
-70.20733 42.252178 -36.3
-70.208149 42.231898 -34.6
-70.208349 42.228526 -34.3
-70.208727 42.22512 -34.3
-70.210246 42.21149 -32.8
-70.211371 42.204729 -32.8
-70.213829 42.191184 -31.9
-70.220759 42.164168 -36.6
-70.223926 42.16817 -31.7
-70.223031 42.171245 -30.8
-70.218529 42.189832 -30.8
-70.216491 42.199159 -31.1
-70.263686 42.029606 -52.1
-70.276858 42.029636 -52.4
-70.2812 42.029645 -52.1
-70.311755 42.029739 -51.1
-70.324762 42.029745 -51.1
-70.556295 42.064036 -33.4
-70.542861 42.072945 -37.8
-70.542409 42.068934 -38.7
-70.545709 42.066789 -37.8
-70.562584 42.05635 -30.2
-70.561147 42.053284 -32.3
-70.55775 42.055361 -31.7
-70.550956 42.059517 -34.7
-70.536296 42.064525 -39.6
-70.53961 42.062414 -38.1
-70.55632 42.052003 -31.9
-70.200807 42.233259 -36.6
-70.201024 42.229932 -36.1
-70.201621 42.223304 -35.5
-70.203706 42.206829 -34.4
-70.204273 42.203543 -34.1
-70.20484 42.200257 -33.8
-70.205004 42.198732 -34.0
-70.207129 42.188668 -33.7
-70.209254 42.178598 -33.7
-70.21394 42.161793 -40.8
-70.218059 42.149335 -47.7
-70.230411 42.118366 -60.8
-70.273991 42.046272 -56.1
-70.276175 42.043378 -55.8
-70.292369 42.02375 -50.0
-70.297303 42.018292 -48.8
-70.28532 42.311 -32.6
-70.287941 42.322894 -31.4
-70.290085 42.330572 -32.0
-70.291158 42.334411 -32.0
-70.291105 42.347303 -33.7
-70.290113 42.344206 -32.5
-70.283954 42.32525 -32.2
-70.283209 42.321889 -32.2
-70.28097 42.311797 -32.8
-70.279048 42.301667 -31.2
-70.275937 42.277831 -30.8
-70.275432 42.270992 -29.9
-70.275262 42.267575 -29.3
-70.275095 42.264156 -28.7
-70.274756 42.257319 -27.4
-70.274847 42.253889 -27.1
-70.275031 42.247029 -26.8
-70.275122 42.243598 -26.8
-70.275214 42.240165 -26.2
-70.276686 42.223098 -24.7
-70.277664 42.216334 -24.1
-70.278642 42.209568 -24.2
-70.279825 42.202859 -23.3
-70.281908 42.192879 -23.0
-70.283491 42.186312 -23.3
-70.286152 42.176587 -23.0
-70.292374 42.157441 -21.0
-70.293663 42.154246 -22.3
-70.296243 42.147855 -52.7
-70.297532 42.144658 -53.5
-70.298824 42.14146 -58.4
-70.292677 42.146227 -51.4
-70.287577 42.158755 -21.5
-70.284399 42.168354 -21.9
-70.282277 42.174757 -23.6
-70.279707 42.184482 -22.7
-70.278852 42.187723 -22.7
-70.534016 42.061795 -39.5
-70.538796 42.054667 -37.3
-70.54213 42.05257 -34.4
-70.550538 42.047395 -27.3
-70.556196 42.040345 -25.8
-70.545638 42.046545 -25.1
-70.528274 42.053072 -39.9
-70.531574 42.051006 -38.4
-70.53818 42.04687 -36.9
-70.544788 42.042731 -18.3
-70.553419 42.037972 -22.4
-70.558596 42.035114 -29.7
-70.55988 42.030761 -28.8
-70.534685 42.044903 -36.3
-70.531219 42.047089 -38.1
-70.527752 42.049275 -39.6
-70.524283 42.051461 -42.1
-70.521755 42.049011 -42.7
-70.544399 42.035159 -17.1
-70.547705 42.033253 -19.5
-70.284588 42.146463 -51.2
-70.284568 42.136049 -58.8
-70.283404 42.09078 -60.7
-70.282973 42.083785 -61.0
-70.28254 42.076789 -59.7
-70.282076 42.069786 -58.8
-70.241919 42.252756 -29.9
-70.242103 42.242651 -28.0
-70.242311 42.23927 -27.4
-70.242522 42.23589 -27.4
-70.251246 42.181612 -24.5
-70.252913 42.174793 -24.8
-70.253943 42.171426 -26.1
-70.257038 42.161318 -43.9
-70.264109 42.141996 -56.7
-70.266831 42.135752 -59.3
-70.268195 42.13263 -59.0
-70.269556 42.129508 -58.7
-70.274042 42.120069 -61.1
-70.278731 42.110596 -61.4
-70.282217 42.104421 -61.4
-70.283962 42.101333 -61.4
-70.287451 42.095155 -60.5
-70.301573 42.07367 -59.6
-70.308042 42.064459 -57.2
-70.319973 42.049325 -54.7
-70.325045 42.043439 -53.5
-70.335392 42.031778 -51.7
-70.349165 42.017728 -50.1
-70.366423 42.001571 -48.0
-70.369412 41.998962 -47.7
-70.389592 41.986685 -46.5
-70.386676 41.98914 -46.8
-70.383756 41.991596 -47.1
-70.377915 41.996512 -47.7
-70.302183 42.21207 -30.0
-70.303342 42.205832 -28.8
-70.304503 42.19959 -27.6
-70.311108 42.17467 -23.5
-70.312047 42.17153 -22.9
-70.315347 42.162238 -20.6
-70.321563 42.146983 -21.8
-70.325582 42.137935 -52.4
-70.331635 42.12598 -59.4
-70.336577 42.117091 -60.7
-70.338291 42.114141 -61.9
-70.345527 42.102433 -60.0
-70.34743 42.099527 -59.4
-70.353338 42.090856 -59.0
-70.355441 42.087995 -58.4
-70.357543 42.085134 -58.1
-70.289919 42.20807 -25.9
-70.28795 42.221265 -25.6
-70.286828 42.231207 -26.2
-70.286583 42.234557 -26.5
-70.286339 42.237909 -26.5
-70.285854 42.25134 -28.0
-70.285862 42.258069 -27.6
-70.286259 42.268228 -27.0
-70.286654 42.275019 -27.0
-70.288107 42.288461 -28.2
-70.29278 42.315172 -30.0
-70.315467 42.047903 -54.3
-70.341431 42.048459 -53.3
-70.345762 42.048461 -53.5
-70.354429 42.04847 -53.2
-70.367424 42.048534 -53.2
-70.384874 42.048547 -52.6
-70.389268 42.048531 -52.3
-70.476847 42.320703 -87.0
-70.48108 42.330267 -68.7
-70.477205 42.310472 -86.0
-70.465619 42.335261 -89.5
-70.469727 42.335039 -87.6
-70.466916 42.328825 -87.8
-70.460563 42.312892 -89.6
-70.459536 42.30965 -89.6
-70.45361 42.286967 -84.1
-70.452479 42.280473 -82.3
-70.451212 42.270707 -76.8
-70.45122 42.237957 -73.2
-70.45142 42.234701 -73.3
-70.452906 42.22504 -68.7
-70.453403 42.22182 -67.8
-70.455761 42.210551 -63.6
-70.45665 42.207368 -63.2
-70.457536 42.204184 -62.6
-70.461817 42.191533 -61.9
-70.464081 42.185216 -61.0
-70.465439 42.182246 -60.7
-70.466797 42.179277 -60.5
-70.470878 42.170363 -59.0
-70.483255 42.149499 -55.0
-70.500138 42.126849 -39.6
-70.523819 42.234001 -59.0
-70.522347 42.247382 -61.7
-70.522255 42.257618 -63.6
-70.522222 42.257429 -64.2
-70.524459 42.277557 -68.7
-70.525825 42.284284 -70.9
-70.526739 42.287632 -72.1
-70.529481 42.297669 -75.7
-70.542926 42.326817 -82.3
-70.545596 42.323436 -81.1
-70.539562 42.311583 -77.7
-70.538214 42.308553 -77.7
-70.535514 42.302494 -75.9
-70.529395 42.280629 -68.9
-70.527573 42.27109 -66.4
-70.527105 42.264712 -64.9
-70.526872 42.26152 -64.3
-70.526563 42.251948 -62.2
-70.400819 42.191266 -62.6
-70.404058 42.181485 -62.0
-70.406637 42.175063 -62.6
-70.407926 42.171849 -62.6
-70.409218 42.168638 -62.0
-70.412073 42.162266 -62.0
-70.415204 42.155946 -62.0
-70.471565 42.291544 -82.1
-70.470968 42.288333 -82.1
-70.469768 42.281912 -80.3
-70.493911 42.273684 -74.5
-70.493669 42.270498 -73.6
-70.493427 42.267309 -72.7
-70.492946 42.248182 -57.2
-70.493535 42.238582 -63.7
-70.493962 42.235354 -63.1
-70.49439 42.232129 -62.5
-70.494818 42.228901 -61.0
-70.498354 42.212715 -57.0
-70.500282 42.206246 -58.5
-70.509323 42.183838 -51.7
-70.510804 42.180674 -51.4
-70.517748 42.16856 -48.9
-70.519571 42.165577 -46.8
-70.521396 42.162594 -45.3
-70.534454 42.145383 -30.2
-70.322762 42.030867 -51.4
-70.317698 42.036409 -52.3
-70.312862 42.042161 -53.5
-70.301123 42.056728 -56.8
-70.296642 42.062661 -58.1
-70.294401 42.065628 -59.0
-70.292312 42.068689 -58.8
-70.290223 42.071753 -59.4
-70.288131 42.074814 -59.4
-70.283951 42.080941 -60.4
-70.282029 42.084088 -60.4
-70.278181 42.090388 -61.0
-70.272609 42.099863 -60.4
-70.265712 42.112571 -61.6
-70.25812 42.12851 -54.6
-70.254062 42.138263 -56.1
-70.247873 42.154549 -54.3
-70.240899 42.176934 -26.2
-70.237893 42.189568 -27.1
-70.23656 42.195912 -27.4
-70.235977 42.199095 -27.4
-70.235396 42.202279 -27.4
-70.231174 42.237948 -29.7
-70.434595 42.21002 -63.6
-70.431895 42.222834 -68.7
-70.431445 42.226037 -69.3
-70.430542 42.232443 -70.3
-70.429314 42.251884 -72.4
-70.429734 42.26824 -83.1
-70.431421 42.281362 -84.0
-70.431843 42.284644 -85.8
-70.437254 42.307806 -93.1
-70.446969 42.333553 -89.5
-70.518875 42.324994 -83.4
-70.517492 42.321967 -83.1
-70.514723 42.315906 -82.1
-70.51195 42.309844 -81.2
-70.510903 42.306739 -81.2
-70.507761 42.297417 -79.1
-70.505997 42.291108 -77.6
-70.503136 42.278307 -74.1
-70.502397 42.271826 -72.2
-70.501658 42.265343 -71.0
-70.502379 42.235873 -62.3
-70.503085 42.22937 -60.8
-70.50379 42.226143 -59.0
-70.504498 42.222912 -58.1
-70.506623 42.21322 -55.0
-70.508796 42.206855 -56.5
-70.513496 42.194185 -52.9
-70.51926 42.181721 -48.5
-70.528276 42.166446 -44.8
-70.530448 42.163471 -41.5
-70.534793 42.157519 -34.9
-70.55714 42.137466 -23.0
-70.552101 42.142616 -27.3
-70.542848 42.153391 -28.2
-70.525373 42.179313 -48.9
-70.520387 42.188469 -50.1
-70.281849 42.171223 -23.2
-70.277968 42.185148 -22.9
-70.272756 42.209645 -23.5
-70.272283 42.213123 -23.2
-70.271336 42.220084 -24.2
-70.270167 42.230504 -25.5
-70.269717 42.237415 -26.1
-70.269492 42.24087 -27.0
-70.363392 42.110077 -60.4
-70.395536 42.079703 -57.0
-70.380228 42.099408 -59.1
-70.378153 42.102308 -59.4
-70.368422 42.117124 -60.0
-70.354722 42.141721 -56.5
-70.347547 42.157491 -56.5
-70.342486 42.170388 -34.7
-70.341467 42.173583 -35.1
-70.345024 42.264473 -77.1
-70.348869 42.297961 -77.1
-70.349571 42.301269 -64.3
-70.351684 42.311197 -60.4
-70.354486 42.321003 -61.6
-70.355422 42.324272 -67.4
-70.356359 42.327542 -88.1
-70.359839 42.337269 -90.1
-70.361 42.340514 -90.1
-70.362164 42.343758 -88.8
-70.364897 42.339494 -90.2
-70.363814 42.336419 -90.2
-70.35967 42.324069 -68.3
-70.356084 42.311556 -59.3
-70.355392 42.308389 -60.5
-70.354697 42.305222 -61.1
-70.354002 42.302056 -67.5
-70.35166 42.289322 -81.2
-70.349288 42.266968 -81.4
-70.349049 42.263776 -81.4
-70.349258 42.244832 -74.1
-70.34974 42.235307 -61.3
-70.349901 42.232132 -59.4
-70.35202 42.21619 -50.3
-70.352662 42.213026 -48.5
-70.35609 42.197212 -42.5
-70.356954 42.194059 -42.2
-70.357818 42.190907 -42.5
-70.358682 42.187754 -41.6
-70.450182 42.115566 -55.8
-70.459754 42.103942 -52.1
-70.470187 42.092822 -50.0
-70.47567 42.087364 -47.5
-70.481426 42.082006 -46.9
-70.487182 42.076645 -46.0
-70.490232 42.074128 -48.2
-70.513393 42.056006 -44.0
-70.516743 42.053686 -43.1
-70.533913 42.042442 -27.1
-70.537471 42.040297 -20.0
-70.53836 42.039761 -17.5
-70.559438 42.028131 -29.9
-70.289596 42.335428 -30.8
-70.380657 42.057189 -54.4
-70.38563 42.051717 -53.2
-70.393632 42.043736 -52.4
-70.398971 42.038411 -51.8
-70.410335 42.028036 -50.0
-70.433835 42.013873 -47.1
-70.430777 42.016212 -47.4
-70.421605 42.023234 -48.6
-70.415971 42.0281 -49.5
-70.397018 42.045628 -52.3
-70.394393 42.048186 -52.7
-70.426814 42.078756 -54.6
-70.424189 42.081503 -55.2
-70.416894 42.090022 -57.0
-70.412031 42.095703 -57.9
-70.409811 42.098628 -58.5
-70.375607 42.154302 -59.9
-70.366334 42.17738 -59.3
-70.364293 42.184054 -46.5
-70.362251 42.190729 -45.3
-70.357404 42.210979 -48.6
-70.353521 42.241234 -71.3
-70.364884 42.326731 -91.4
-70.368192 42.336211 -92.0
-70.369297 42.339372 -92.0
-70.372742 42.336875 -92.0
-70.370375 42.330331 -92.0
-70.369334 42.327 -91.4
-70.368289 42.323669 -88.4
-70.3662 42.317006 -64.6
-70.365156 42.313672 -63.4
-70.364409 42.310375 -63.1
-70.361414 42.297178 -83.8
-70.408581 42.241098 -69.8
-70.408895 42.237665 -69.8
-70.409206 42.234234 -69.5
-70.409833 42.227368 -68.6
-70.411621 42.217287 -66.8
-70.412819 42.210562 -64.2
-70.420769 42.183846 -62.0
-70.421949 42.180552 -62.3
-70.424583 42.174024 -62.6
-70.430385 42.161088 -61.9
-70.561622 42.038486 -28.7
-70.558031 42.040467 -30.2
-70.550846 42.044428 -29.9
-70.547252 42.046411 -29.9
-70.54383 42.048556 -30.5
-70.533563 42.054995 -38.6
-70.35809 42.014222 -49.5
-70.327534 42.04635 -53.9
-70.318276 42.057711 -56.1
-70.31599 42.060584 -56.4
-70.313704 42.063459 -57.0
-70.311548 42.06645 -57.3
-70.30292 42.07842 -60.4
-70.298915 42.084605 -61.0
-70.275431 42.126141 -59.6
-70.269712 42.139333 -57.0
-70.261063 42.162809 -42.7
-70.259991 42.166209 -27.0
-70.258918 42.169612 -26.1
-70.255146 42.183348 -24.5
-70.24946 42.210898 -24.7
-70.247081 42.231168 -26.8
-70.246861 42.23454 -26.8
-70.246108 42.261408 -30.9
-70.24665 42.271331 -32.2
-70.247014 42.277947 -33.7
-70.247372 42.281225 -33.7
-70.248089 42.287786 -33.1
-70.248447 42.291067 -33.4
-70.381699 42.061559 -55.2
-70.287735 42.328994 -31.7
-70.284434 42.316044 -32.0
-70.279657 42.289931 -31.5
-70.279312 42.286661 -31.5
-70.278618 42.280119 -30.0
-70.2789 42.225201 -24.7
-70.284283 42.193159 -23.5
-70.285947 42.18677 -23.3
-70.288443 42.177182 -23.6
-70.391792 42.096767 -59.1
-70.387669 42.102441 -59.7
-70.372544 42.125496 -61.0
-70.369194 42.131413 -61.0
-70.367519 42.134371 -61.4
-70.365844 42.137333 -59.3
-70.361458 42.146369 -58.4
-70.356 42.158577 -57.2
-70.356306 42.157477 -57.3
-70.351572 42.169677 -54.6
-70.350386 42.172727 -52.7
-70.349386 42.175891 -50.0
-70.343037 42.198104 -41.3
-70.342259 42.20129 -41.3
-70.341479 42.204476 -41.9
-70.339759 42.21407 -43.4
-70.336551 42.245995 -57.5
-70.336677 42.268436 -65.2
-70.336966 42.271581 -67.4
-70.340655 42.299869 -64.3
-70.342783 42.309322 -58.2
-70.346978 42.325058 -85.8
-70.351211 42.337619 -87.0
-70.354784 42.347033 -87.6
-70.357597 42.340525 -88.2
-70.404412 42.327031 -93.1
-70.398975 42.311203 -91.3
-70.398222 42.308031 -89.5
-70.39747 42.304856 -89.5
-70.393736 42.285833 -87.6
-70.393245 42.282667 -86.7
-70.392475 42.276292 -85.8
-70.391634 42.266659 -84.0
-70.39135 42.263448 -82.1
-70.391505 42.243968 -66.3
-70.391741 42.240668 -65.7
-70.392963 42.227459 -66.6
-70.393983 42.220837 -64.8
-70.395735 42.210929 -62.6
-70.530138 42.057142 -40.7
-70.493279 42.086097 -43.6
-70.460173 42.12148 -53.5
-70.455932 42.127352 -56.2
-70.447699 42.139188 -59.3
-70.44583 42.142213 -59.9
-70.440216 42.151294 -61.3
-70.438591 42.154444 -61.3
-70.436963 42.157594 -61.3
-70.429416 42.173383 -63.1
-70.424344 42.186158 -62.8
-70.423269 42.189419 -63.4
-70.422194 42.192683 -63.4
-70.476879 42.271993 -76.7
-70.47604 42.261776 -73.0
-70.47576 42.258368 -73.0
-70.476026 42.248176 -62.0
-70.477054 42.234695 -62.8
-70.480631 42.21477 -61.9
-70.48217 42.208171 -61.0
-70.49055 42.185927 -58.2
-70.49645 42.173696 -55.5
-70.499859 42.167702 -54.6
-70.501561 42.164705 -53.3
-70.503267 42.161705 -52.1
-70.513172 42.147341 -43.6
-70.517639 42.14186 -35.5
-70.531842 42.125885 -25.8
-70.534345 42.123302 -26.4
-70.536847 42.120716 -31.5
-70.547842 42.110903 -31.9
-70.556601 42.103747 -30.9
-70.56011 42.105506 -28.2
-70.526359 42.137324 -34.9
-70.373005 42.071114 -56.4
-70.370746 42.073881 -56.7
-70.359874 42.087895 -58.5
-70.353732 42.096469 -59.1
-70.340949 42.116655 -61.7
-70.339268 42.119585 -61.7
-70.3142 42.17739 -24.2
-70.31325 42.180518 -24.8
-70.309883 42.193173 -27.6
-70.30915 42.196373 -28.5
-70.307683 42.202773 -29.4
-70.306553 42.209265 -31.5
-70.304567 42.221751 -31.5
-70.302687 42.2653 -32.9
-70.468568 42.275487 -78.5
-70.468096 42.268995 -76.7
-70.467621 42.262504 -74.8
-70.467418 42.256023 -73.8
-70.469085 42.230234 -54.6
-70.470136 42.223862 -67.4
-70.470806 42.220701 -64.3
-70.471478 42.21754 -63.7
-70.4801 42.189594 -59.3
-70.481364 42.186538 -59.0
-70.483895 42.18043 -58.4
-70.48702 42.174394 -57.5
-70.488581 42.171374 -56.5
-70.493614 42.16238 -54.3
-70.49552 42.159424 -53.9
-70.497425 42.156469 -52.1
-70.503409 42.147683 -50.0
-70.50775 42.141935 -42.7
-70.517086 42.13066 -36.4
-70.519581 42.127899 -34.6
-70.524575 42.122371 -32.0
-70.527317 42.119771 -28.7
-70.5328 42.114572 -31.7
-70.316554 42.234107 -41.1
-70.320748 42.234118 -43.6
-70.324943 42.234129 -46.5
-70.397949 42.23452 -68.3
-70.406566 42.234682 -68.9
-70.419645 42.234932 -69.8
-70.428567 42.235109 -70.6
-70.442011 42.235337 -71.5
-70.451056 42.235434 -71.5
-70.4601 42.235534 -68.1
-70.464676 42.235418 -59.6
-70.469251 42.235301 -57.5
-70.473826 42.235184 -55.3
-70.478401 42.235068 -61.4
-70.487504 42.235368 -64.6
-70.496557 42.236209 -62.8
-70.510191 42.236937 -61.9
-70.528519 42.236473 -58.5
-70.537663 42.236498 -53.9
-70.337284 42.205548 -42.1
-70.35059 42.205637 -43.6
-70.368254 42.205676 -51.5
-70.38581 42.20567 -62.2
-70.403291 42.205815 -61.9
-70.420721 42.205712 -62.5
-70.451267 42.205529 -63.1
-70.455672 42.205498 -63.1
-70.245849 42.182337 -25.1
-70.244993 42.185676 -25.5
-70.244135 42.189015 -25.5
-70.243507 42.19232 -25.5
-70.242877 42.195626 -25.5
-70.241616 42.20224 -25.8
-70.440543 42.316447 -61.0
-70.433521 42.319686 -64.9
-70.299368 42.163094 -20.0
-70.298188 42.166271 -20.9
-70.296188 42.172745 -22.9
-70.295185 42.175984 -23.2
-70.293183 42.182465 -24.1
-70.289972 42.195645 -24.4
-70.287975 42.205618 -24.5
-70.286783 42.212295 -25.1
-70.305658 42.306042 -29.1
-70.347831 42.161913 -47.4
-70.346472 42.165105 -47.4
-70.345333 42.168358 -41.3
-70.344194 42.17161 -41.6
-70.341914 42.178116 -36.6
-70.340772 42.18137 -35.7
-70.212143 42.234907 -33.8
-70.212593 42.228218 -33.5
-70.212855 42.224915 -33.2
-70.214146 42.21204 -32.0
-70.214652 42.20907 -31.7
-70.215157 42.206104 -31.7
-70.215663 42.203134 -31.4
-70.216171 42.200165 -31.4
-70.19283 42.284508 -45.6
-70.193781 42.294128 -47.4
-70.197842 42.318361 -48.0
-70.198233 42.320258 -51.1
-70.199578 42.326772 -53.8
-70.194599 42.248079 -38.9
-70.19471 42.244745 -38.4
-70.196749 42.217973 -36.1
-70.197191 42.214615 -35.8
-70.197629 42.211257 -35.8
-70.199126 42.201187 -35.2
-70.200976 42.191132 -35.2
-70.202412 42.184445 -35.5
-70.203231 42.181112 -35.2
-70.212012 42.164398 -36.6
-70.211006 42.167495 -33.8
-70.207845 42.179951 -34.4
-70.207054 42.183068 -34.4
-70.20524 42.191668 -34.4
-70.204634 42.194534 -34.1
-70.204029 42.197401 -34.4
-70.204448 42.19622 -34.3
-70.203845 42.199373 -34.1
-70.203242 42.202523 -34.4
-70.202637 42.205676 -34.7
-70.201768 42.21207 -34.7
-70.20046 42.221668 -35.7
-70.541956 42.124041 -30.6
-70.541982 42.140421 -27.6
-70.537498 42.142716 -27.7
-70.538056 42.129335 -21.3
-70.344467 42.151938 -55.0
-70.335864 42.149638 -52.0
-70.318535 42.145191 -23.5
-70.512225 42.130558 -37.2
-70.507447 42.136146 -39.9
-70.502981 42.141833 -46.9
-70.5009 42.144727 -50.0
-70.289922 42.001489 -44.8
-70.287391 42.004211 -45.4
-70.284861 42.006934 -45.7
-70.274833 42.01797 -48.5
-70.267533 42.02657 -51.2
-70.262819 42.032389 -52.9
-70.260813 42.028842 -52.0
-70.265352 42.023267 -50.4
-70.287249 41.998678 -44.0
-70.263988 42.018931 -48.9
-70.261579 42.021764 -49.5
-70.256602 42.027845 -50.7
-70.254032 42.031092 -51.1
-70.255815 42.022764 -49.5
-70.25809 42.019947 -48.9
-70.257187 42.320672 -35.1
-70.25644 42.317328 -33.8
-70.255693 42.313983 -33.5
-70.254945 42.310636 -32.9
-70.2521 42.293683 -32.9
-70.251739 42.290275 -32.9
-70.25065 42.280047 -33.5
-70.250128 42.273217 -31.7
-70.249969 42.269797 -31.4
-70.249653 42.262956 -31.2
-70.249531 42.256178 -29.4
-70.249603 42.249464 -28.5
-70.250142 42.236168 -27.0
-70.250842 42.22629 -25.8
-70.251671 42.219704 -24.8
-70.253566 42.206465 -24.1
-70.256946 42.189854 -22.9
-70.258518 42.183495 -23.5
-70.261046 42.174001 -24.7
-70.264868 42.161469 -42.4
-70.265824 42.158335 -42.7
-70.256888 42.172726 -25.8
-70.254288 42.182623 -24.4
-70.251205 42.195754 -23.8
-70.250432 42.199037 -23.8
-70.249413 42.205609 -24.4
-70.248902 42.208895 -24.4
-70.247382 42.218737 -25.0
-70.245456 42.235048 -27.0
-70.245669 42.251236 -29.1
-70.245647 42.254461 -29.4
-70.245625 42.257683 -30.0
-70.245581 42.264133 -30.9
-70.246508 42.280142 -33.7
-70.230717 42.254433 -32.2
-70.230661 42.257731 -32.5
-70.230872 42.264208 -33.1
-70.231086 42.270689 -34.3
-70.231825 42.280447 -35.7
-70.232142 42.283706 -35.7
-70.232458 42.286964 -36.3
-70.316677 42.281272 -45.9
-70.315607 42.268247 -44.0
-70.315457 42.264992 -44.7
-70.315157 42.258476 -43.1
-70.315193 42.255237 -43.1
-70.315309 42.245515 -43.1
-70.316426 42.229365 -41.0
-70.317159 42.222926 -40.2
-70.319697 42.206932 -37.0
-70.325031 42.184834 -27.9
-70.396523 42.13948 -61.3
-70.400218 42.133291 -61.6
-70.405765 42.124005 -60.7
-70.414207 42.112046 -59.7
-70.427903 42.0944 -57.0
-70.430444 42.091581 -56.1
-70.438072 42.083117 -54.3
-70.446167 42.074867 -52.7
-70.466167 42.056386 -48.2
-70.497329 42.032798 -42.7
-70.507084 42.026487 -39.3
-70.51359 42.022276 -37.8
-70.520907 42.018168 -35.5
-70.531882 42.012001 -34.0
-70.53554 42.009946 -33.7
-70.539201 42.007887 -33.4
-70.548419 42.00716 -19.8
-70.541233 42.010921 -31.9
-70.534043 42.014685 -31.4
-70.530448 42.016568 -33.2
-70.526854 42.018451 -34.1
-70.520029 42.022554 -37.3
-70.506523 42.030912 -41.9
-70.478043 42.051261 -45.0
-70.458325 42.06832 -48.9
-70.447697 42.07852 -52.3
-70.445142 42.081175 -52.9
-70.42769 42.285111 -86.9
-70.426359 42.274876 -83.2
-70.425184 42.25092 -72.1
-70.425145 42.247493 -71.8
-70.42622 42.233748 -70.9
-70.427053 42.226873 -70.0
-70.432069 42.202909 -64.6
-70.432985 42.199504 -64.0
-70.433902 42.196096 -63.7
-70.435102 42.192785 -63.4
-70.348481 42.136377 -56.5
-70.346914 42.139352 -55.3
-70.345497 42.142346 -55.3
-70.338664 42.157388 -27.4
-70.337506 42.160446 -25.9
-70.336347 42.163505 -25.3
-70.333061 42.17271 -25.9
-70.330161 42.181973 -28.8
-70.329192 42.185062 -30.0
-70.328417 42.188148 -31.5
-70.326861 42.194326 -34.6
-70.32289 42.212926 -38.7
-70.322284 42.216032 -39.3
-70.319412 42.250707 -44.8
-70.319476 42.253923 -45.7
-70.32027 42.273392 -48.8
-70.320674 42.279942 -50.3
-70.322885 42.296322 -48.2
-70.323577 42.299631 -49.4
-70.324271 42.302939 -49.4
-70.329938 42.325997 -53.9
-70.331827 42.332308 -57.6
-70.333809 42.338364 -68.3
-70.34052 42.344539 -79.9
-70.336256 42.332178 -82.4
-70.334238 42.325975 -62.0
-70.331688 42.316625 -51.7
-70.381395 42.309122 -90.8
-70.379197 42.299567 -87.2
-70.377245 42.290017 -87.2
-70.376822 42.286767 -87.3
-70.376397 42.283514 -87.3
-70.375975 42.280264 -86.7
-70.374627 42.263923 -83.7
-70.374444 42.250904 -74.5
-70.374519 42.247673 -72.7
-70.38127 42.199812 -61.6
-70.392862 42.165391 -62.0
-70.39557 42.159241 -61.7
-70.397032 42.156208 -61.7
-70.40994 42.132316 -61.1
-70.413762 42.126471 -60.8
-70.269217 42.254667 -28.2
-70.270868 42.285167 -32.9
-70.271687 42.291789 -33.2
-70.273251 42.301661 -30.8
-70.273826 42.304942 -30.2
-70.274982 42.311506 -31.7
-70.275743 42.314692 -32.9
-70.278795 42.327447 -33.1
-70.534819 42.045925 -35.2
-70.503434 42.068003 -44.5
-70.494648 42.075128 -47.4
-70.478365 42.090003 -47.4
-70.46839 42.100192 -51.7
-70.465995 42.102861 -52.0
-70.461207 42.1082 -53.8
-70.454459 42.116463 -55.6
-70.447934 42.124852 -57.2
-70.445968 42.127758 -58.4
-70.469063 42.298056 -84.4
-70.486586 42.205166 -59.9
-70.491011 42.205102 -59.3
-70.268399 42.002406 -43.9
-70.25869 42.013442 -46.6
-70.256293 42.016239 -47.5
-70.255902 42.00942 -45.4
-70.260765 42.003725 -43.9
-70.263335 42.00095 -43.3
-70.265907 41.998172 -42.7
-70.276435 41.993547 -42.7
-70.28096 41.993401 -43.0
-70.294535 41.992962 -43.7
-70.299063 41.992815 -44.3
-70.330353 42.001539 -47.7
-70.327664 42.004164 -47.9
-70.31973 42.012114 -48.5
-70.314628 42.017509 -49.1
-70.304625 42.028497 -50.9
-70.297275 42.036892 -53.0
-70.294983 42.039784 -53.8
-70.288108 42.048459 -56.8
-70.281516 42.057234 -58.1
-70.277216 42.063117 -58.4
-70.271247 42.071875 -58.4
-70.265516 42.080602 -59.0
-70.263794 42.083524 -59.0
-70.258619 42.092299 -60.7
-70.255312 42.098196 -61.0
-70.250556 42.107113 -61.6
-70.243306 42.122019 -54.6
-70.239417 42.130955 -53.8
-70.238181 42.13393 -52.6
-70.247367 42.289744 -33.5
-70.247653 42.292944 -33.8
-70.249787 42.305569 -35.1
-70.250404 42.308711 -34.4
-70.251748 42.314981 -35.1
-70.253207 42.321239 -34.7
-70.254665 42.3275 -34.7
-70.259212 42.343419 -37.0
-70.253154 42.337906 -37.0
-70.250337 42.328097 -36.1
-70.244356 42.298214 -35.1
-70.302757 42.268625 -32.6
-70.303387 42.275308 -32.9
-70.303701 42.27865 -33.2
-70.304018 42.281992 -32.9
-70.30484 42.288717 -32.3
-70.308366 42.308964 -29.6
-70.309116 42.312325 -28.7
-70.309863 42.315683 -27.9
-70.310613 42.319044 -27.9
-70.311588 42.322367 -27.6
-70.358655 42.277128 -83.2
-70.357641 42.263604 -81.1
-70.357585 42.256801 -79.2
-70.357558 42.253398 -78.3
-70.358002 42.239801 -69.2
-70.360184 42.21952 -52.3
-70.361879 42.209504 -50.1
-70.374473 42.167271 -60.2
-70.380073 42.154469 -59.9
-70.391336 42.132535 -61.7
-70.395178 42.126463 -61.6
-70.3971 42.123427 -61.3
-70.40305 42.114391 -60.0
-70.407264 42.108463 -59.4
-70.409372 42.105499 -59.1
-70.418531 42.093939 -57.6
-70.423233 42.088206 -56.4
-70.428369 42.082631 -54.3
-70.453092 42.058142 -50.1
-70.456117 42.055531 -49.8
-70.462164 42.050309 -48.6
-70.484647 42.033039 -40.4
-70.494831 42.026057 -36.6
-70.251534 42.310533 -34.4
-70.259832 42.342897 -36.7
-70.259332 42.326503 -34.1
-70.25847 42.323292 -35.1
-70.250464 42.263158 -31.5
-70.250428 42.256536 -29.7
-70.250669 42.243384 -28.0
-70.250808 42.24012 -27.7
-70.251997 42.224032 -25.6
-70.252605 42.217659 -25.0
-70.294465 42.098985 -61.0
-70.296092 42.096099 -62.2
-70.303426 42.084746 -61.3
-70.305259 42.081906 -60.7
-70.546338 42.319867 -78.5
-70.523553 42.319278 -80.9
-70.518967 42.319172 -81.8
-70.500519 42.318828 -85.2
-70.477602 42.318956 -87.0
-70.192702 42.249423 -39.8
-70.19291 42.242537 -39.2
-70.193096 42.239082 -38.9
-70.193657 42.228712 -38.1
-70.194027 42.225268 -37.8
-70.194399 42.22182 -37.5
-70.194771 42.218373 -36.7
-70.197195 42.201257 -36.1
-70.213342 42.14103 -52.7
-70.214604 42.137771 -54.6
-70.217125 42.131255 -57.0
-70.22263 42.118294 -58.8
-70.22525 42.122355 -54.3
-70.215179 42.14833 -48.3
-70.212881 42.154871 -48.0
-70.210915 42.161394 -39.2
-70.20719 42.174409 -34.1
-70.205648 42.180873 -35.1
-70.204876 42.184107 -35.1
-70.20219 42.197284 -35.1
-70.197555 42.233893 -37.5
-70.197285 42.237209 -37.8
-70.197202 42.240565 -38.1
-70.196868 42.253992 -39.0
-70.196916 42.257369 -39.6
-70.196966 42.26075 -39.9
-70.246334 42.152169 -56.7
-70.243237 42.161687 -49.4
-70.24117 42.168037 -29.7
-70.238513 42.177604 -26.4
-70.237699 42.180798 -26.4
-70.236885 42.183995 -26.4
-70.233471 42.199862 -27.7
-70.231891 42.209451 -28.0
-70.230493 42.219087 -28.7
-70.230193 42.222307 -28.7
-70.420044 42.199207 -63.7
-70.418458 42.205812 -63.9
-70.416077 42.215723 -66.9
-70.415563 42.219107 -68.1
-70.414022 42.229259 -69.6
-70.413084 42.269776 -82.8
-70.415109 42.286367 -86.6
-70.418587 42.303058 -88.4
-70.423529 42.319497 -81.1
-70.424743 42.322725 -83.8
-70.423304 42.304583 -90.2
-70.421079 42.295017 -88.4
-70.418725 42.282139 -85.6
-70.417022 42.242598 -72.1
-70.417825 42.232837 -70.1
-70.421677 42.210276 -64.6
-70.423091 42.203801 -63.4
-70.426019 42.194213 -63.7
-70.504678 42.167233 -52.7
-70.502942 42.170344 -53.6
-70.49635 42.182841 -56.4
-70.494964 42.185999 -56.7
-70.490803 42.19548 -58.8
-70.48977 42.198652 -58.8
-70.481418 42.233712 -64.8
-70.480285 42.24317 -57.2
-70.480529 42.265093 -73.9
-70.483086 42.284234 -79.4
-70.486063 42.2969 -82.0
-70.494841 42.321775 -89.0
-70.497874 42.327753 -91.4
-70.499392 42.330744 -91.1
-70.492488 42.304006 -83.1
-70.487111 42.284148 -79.2
-70.485223 42.27089 -75.3
-70.484651 42.264198 -73.5
-70.255946 42.198768 -23.5
-70.257218 42.192465 -23.0
-70.257855 42.189315 -23.3
-70.270185 42.149233 -52.4
-70.270771 42.14771 -50.0
-70.276398 42.134127 -56.8
-70.286456 42.113458 -62.9
-70.287956 42.110524 -62.3
-70.289581 42.107641 -62.0
-70.292837 42.101871 -61.6
-70.313541 42.329014 -27.3
-70.322124 42.342478 -29.3
-70.319149 42.333347 -29.0
-70.318155 42.3303 -31.1
-70.309179 42.289572 -34.0
-70.307229 42.270631 -36.4
-70.306687 42.25167 -37.8
-70.30719 42.238959 -37.5
-70.307979 42.229354 -34.9
-70.313272 42.197029 -29.3
-70.31475 42.190607 -27.4
-70.320272 42.171602 -22.9
-70.322622 42.165277 -21.9
-70.330339 42.146249 -51.7
-70.333136 42.139888 -53.8
-70.337857 42.130585 -58.1
-70.341007 42.12438 -59.6
-70.356018 42.100024 -59.3
-70.364399 42.088272 -58.4
-70.375755 42.073881 -56.8
-70.542173 42.00274 -32.5
-70.531232 42.008248 -35.8
-70.524298 42.012173 -34.3
-70.517362 42.016098 -36.1
-70.513893 42.018062 -37.3
-70.507234 42.022265 -38.6
-70.503904 42.024368 -39.2
-70.494086 42.030796 -39.2
-70.481461 42.039686 -42.5
-70.466542 42.051334 -48.0
-70.458056 42.058711 -48.9
-70.441678 42.074014 -53.0
-70.438994 42.076611 -53.3
-70.434031 42.082011 -54.3
-70.422033 42.095675 -57.3
-70.419758 42.098456 -57.6
-70.471692 42.178388 -59.6
-70.457717 42.22159 -67.2
-70.430548 42.317217 -66.8
-70.207956 42.275839 -39.2
-70.217859 42.174234 -31.9
-70.219209 42.18672 -30.8
-70.555606 42.06035 -32.9
-70.554639 42.049075 -32.0
-70.223862 42.133716 -54.1
-70.552283 42.046411 -31.2
-70.531302 42.042911 -38.1
-70.256007 42.164687 -31.9
-70.262901 42.145188 -55.2
-70.327581 42.040495 -53.2
-70.340005 42.111191 -61.6
-70.37091 42.068197 -55.9
-70.434307 42.008754 -46.3
-70.418788 42.025667 -49.2
-70.414464 42.092861 -57.6
-70.35447 42.231223 -59.3
-70.353691 42.267787 -82.0
-70.359345 42.30735 -62.8
-70.428933 42.164324 -62.2
-70.289231 42.100255 -61.4
-70.27709 42.122874 -61.4
-70.358533 42.152396 -58.4
-70.338612 42.22047 -46.2
-70.526902 42.059467 -40.4
-70.359234 42.226251 -54.1
-70.381534 42.151277 -59.6
-70.473044 42.319053 -86.1
-70.193468 42.23217 -38.3
-70.209929 42.164654 -35.1
-70.235421 42.190359 -27.1
-70.419252 42.202509 -62.8
-70.412559 42.25979 -80.9
-70.422315 42.316272 -81.1
-70.425148 42.310894 -90.2
-70.480168 42.249387 -61.1
-70.489994 42.309419 -84.7
-70.491205 42.312508 -85.6
-70.307737 42.276942 -37.2
-70.30864 42.222926 -32.9
-70.366577 42.085389 -58.1
-70.460886 42.05625 -49.5
-70.406083 42.188785 -62.6
-70.479136 42.344253 -91.7
-70.473059 42.185177 -59.9
-70.293753 42.013686 -47.9
-70.260717 42.219762 -23.9
-70.23248 42.184626 -27.3
-70.518148 42.013926 -35.5
-70.377425 42.319089 -96.6
-70.271632 42.16979 -25.0
-70.255367 42.285425 -32.6
-70.257065 42.298428 -33.1
-70.260895 42.317861 -33.1
-70.261682 42.321125 -34.3
-70.266879 42.340647 -33.7
-70.440164 42.046425 -49.7
-70.228331 42.251469 -32.6
-70.243213 42.197982 -25.0
-70.287798 42.249409 -27.7
-70.519022 42.126924 -35.8
-70.529045 42.1167 -31.5
-70.511628 42.129485 -36.4
-70.533756 42.0977 -35.4
-70.480821 42.13928 -53.5
-70.243026 42.310994 -36.1
-70.250401 42.324533 -34.9
-70.294659 42.246284 -29.7
-70.298734 42.253376 -32.2
-70.208998 42.160369 -42.2
-70.209986 42.129888 -58.7
-70.190992 42.194493 -36.3
-70.186021 42.233112 -39.3
-70.185441 42.265814 -43.4
-70.396394 42.110083 -59.7
-70.403939 42.252248 -66.8
-70.33507 42.216859 -44.3
-70.417865 42.134766 -61.1
-70.472415 42.070292 -48.5
-70.51604 42.041436 -41.6
-70.47336 42.277365 -77.0
-70.481013 42.308572 -85.2
-70.54275 42.246204 -56.2
-70.52787 42.094617 -40.4
-70.395339 42.086028 -58.1
-70.487464 42.005857 -35.7
-70.449889 42.037114 -48.3
-70.43512 42.116327 -58.2
-70.422993 42.134058 -60.8
-70.40119 42.17766 -62.0
-70.400068 42.18086 -62.3
-70.237643 42.231629 -27.6
-70.206216 42.219865 -34.1
-70.271906 42.229048 -24.7
-70.272345 42.285031 -32.0
-70.359901 42.029495 -50.9
-70.53191 42.037847 -26.1
-70.532444 42.033661 -20.4
-70.536256 42.277173 -66.3
-70.204296 42.261333 -37.6
-70.21075 42.292083 -40.7
-70.208577 42.262189 -36.6
-70.523486 42.151499 -37.3
-70.536695 42.124816 -24.1
-70.559693 42.095606 -29.6
-70.515259 42.156021 -47.5
-70.438691 42.14626 -60.4
-70.279663 42.172793 -23.8
-70.285041 42.156752 -29.6
-70.194825 42.33255 -57.3
-70.203656 42.302022 -45.1
-70.284769 42.227276 -25.5
-70.298096 42.161746 -19.7
-70.289424 42.16188 -20.1
-70.246645 42.161123 -48.8
-70.332134 42.20929 -40.5
-70.33034 42.219223 -43.6
-70.328107 42.24587 -50.6
-70.505883 42.115122 -38.1
-70.537654 42.181852 -45.6
-70.548965 42.164385 -34.4
-70.285487 42.300389 -28.0
-70.285173 42.298831 -29.6
-70.532266 42.202383 -45.4
-70.267603 42.247695 -27.3
-70.265694 42.218226 -23.5
-70.33491 42.312297 -56.2
-70.336488 42.318842 -55.6
-70.314182 42.133238 -59.3
-70.393975 42.308303 -89.5
-70.271187 42.320508 -33.2
-70.269665 42.331631 -33.2
-70.264348 42.309156 -32.0
-70.46557 42.085245 -50.9
-70.326132 42.091708 -59.4
-70.312409 42.092044 -58.5
-70.455737 42.296689 -86.0
-70.522078 42.125135 -34.4
-70.329137 42.23414 -49.2
-70.354666 42.234195 -60.5
-70.191755 42.268503 -42.2
-70.191902 42.2717 -43.1
-70.194756 42.300672 -46.8
-70.197561 42.317003 -49.5
-70.208551 42.16131 -41.3
-70.209426 42.173723 -33.5
-70.234583 42.3032 -36.0
-70.282328 42.009656 -46.0
-70.260496 42.017147 -48.3
-70.245397 42.231807 -26.5
-70.199478 42.335025 -56.7
-70.192883 42.301864 -48.5
-70.19073 42.224954 -38.1
-70.193726 42.202984 -36.7
-70.329789 42.162738 -22.6
-70.479182 42.244868 -57.3
-70.36434 42.219837 -53.8
-70.44208 42.156377 -61.0
-70.550281 42.05252 -33.1
-70.537275 42.130999 -23.5
-70.369772 42.313858 -72.2
-70.526343 42.162574 -46.6
-70.496971 42.255295 -59.7
-70.502724 42.295408 -78.9
-70.5114 42.318239 -83.2
-70.472151 42.060875 -47.1
-70.434865 42.275132 -82.4
-70.424021 42.2896 -88.1
-70.286624 42.135477 -59.7
-70.383663 42.082114 -57.6
-70.377282 42.090409 -58.2
-70.400393 42.14106 -61.6
-70.388298 42.165696 -61.4
-70.371152 42.234462 -62.5
-70.472846 42.136785 -54.4
-70.53187 42.331806 -83.4
-70.277284 42.301211 -30.2
-70.274129 42.274594 -31.2
-70.273272 42.251362 -27.0
-70.277097 42.209595 -23.8
-70.281521 42.187579 -23.3
-70.326071 42.288336 -55.0
-70.274118 42.340297 -32.8
-70.312984 42.222576 -36.7
-70.318874 42.316958 -40.8
-70.32156 42.310533 -45.4
-70.38022 42.020903 -49.8
-70.371901 42.028861 -51.1
-70.344343 42.089739 -59.0
-70.344194 42.296239 -74.4
-70.542047 42.208244 -40.1
-70.420408 42.074509 -54.9
-70.489172 42.162399 -55.5
-70.388119 42.112024 -59.3
-70.532475 42.112328 -30.8
-70.541317 42.112456 -32.0
-70.349516 42.089217 -58.8
-70.346234 42.227412 -52.3
-70.344866 42.244273 -64.8
-70.344833 42.254368 -77.9
-70.531943 42.159271 -37.5
-70.335321 42.112524 -60.7
-70.232498 42.134349 -52.6
-70.236084 42.125646 -55.0
-70.303586 42.008825 -47.1
-70.555379 42.317969 -76.4
-70.525214 42.281529 -70.4
-70.300418 42.148652 -51.5
-70.552629 42.124924 -24.1
-70.510758 42.270526 -70.0
-70.519923 42.200219 -52.3
-70.223397 42.311839 -41.3
-70.221258 42.299144 -39.5
-70.219053 42.279931 -37.3
-70.225074 42.198912 -29.3
-70.486022 42.01741 -39.9
-70.474998 42.229951 -64.9
-70.279115 42.080519 -59.9
-70.228446 42.219965 -29.3
-70.400782 42.157905 -61.9
-70.551081 42.0687 -34.9
-70.457521 42.169846 -61.0
-70.538065 42.135708 -26.5
-70.269027 42.183918 -22.6
-70.319292 42.18119 -25.6
-70.395215 42.012509 -48.8
-70.37056 42.040359 -52.3
-70.502824 42.308639 -82.6
-70.506365 42.190169 -54.7
-70.23423 42.208648 -27.7
-70.231663 42.23134 -29.0
-70.530629 42.170341 -46.8
-70.274789 42.199145 -22.9
-70.349088 42.251159 -77.7
-70.462362 42.101164 -51.5
-70.552013 42.03207 -23.5
-70.478003 42.046764 -44.8
-70.503832 42.02859 -40.8
-70.430235 42.20972 -64.3
-70.390368 42.171621 -62.0
-70.470784 42.097522 -51.1
-70.450109 42.122055 -55.3
-70.270124 42.005939 -45.0
-70.253726 42.101169 -61.0
-70.255573 42.330683 -34.1
-70.268939 42.207293 -23.5
-70.347181 42.13008 -58.4
-70.378153 42.131549 -60.7
-70.404529 42.314861 -92.7
-70.415782 42.333792 -91.0
-70.414387 42.330492 -91.0
-70.399792 42.24864 -70.1
-70.405002 42.207634 -63.4
-70.406599 42.201382 -62.6
-70.524995 42.117025 -31.4
-70.444307 42.110797 -56.1
-70.461284 42.091192 -52.1
-70.501445 42.055864 -43.4
-70.493805 42.141174 -50.9
-70.454785 42.256773 -74.7
-70.536052 42.216845 -41.6
-70.300872 42.185598 -25.0
-70.211935 42.201345 -32.5
-70.215359 42.184387 -31.9
-70.542924 42.0603 -37.2
-70.205712 42.195379 -33.7
-70.287591 42.029281 -51.5
-70.284548 42.306969 -32.3
-70.285457 42.165155 -21.8
-70.545271 42.038578 -17.1
-70.554441 42.029575 -25.8
-70.351984 42.014992 -49.8
-70.357623 42.00952 -48.9
-70.360445 42.006784 -48.6
-70.334863 42.120041 -60.0
-70.290754 42.305206 -30.9
-70.291962 42.311906 -30.9
-70.375685 42.062659 -55.2
-70.407493 42.030631 -50.3
-70.354913 42.280989 -82.0
-70.408086 42.258229 -81.4
-70.253521 42.190282 -23.6
-70.25076 42.204037 -24.4
-70.285873 42.322561 -31.7
-70.277311 42.257275 -27.0
-70.28761 42.180379 -23.6
-70.353467 42.16476 -55.6
-70.391303 42.253743 -78.5
-70.394494 42.217526 -63.9
-70.507927 42.073639 -44.5
-70.501901 42.078514 -43.6
-70.477801 42.278837 -78.2
-70.476598 42.268587 -74.8
-70.305854 42.295481 -31.1
-70.35753 42.249995 -77.4
-70.405158 42.111427 -59.7
-70.420881 42.091072 -56.7
-70.491436 42.028385 -37.5
-70.251092 42.233587 -26.5
-70.251694 42.227218 -25.9
-70.555363 42.320144 -76.8
-70.197063 42.267511 -41.5
-70.234121 42.196695 -27.4
-70.231427 42.212662 -28.3
-70.416871 42.212418 -66.0
-70.41247 42.256454 -72.1
-70.417392 42.236048 -70.3
-70.487703 42.204996 -60.0
-70.481335 42.274665 -76.7
